-0.00983872,-0.04055802,-0.01862020,0.064803,-0.997545,-0.026559
-0.01417482,-0.04082469,-0.01774780,0.086698,-0.990665,0.105193
-0.01108691,-0.04064324,-0.01860203,0.080136,-0.995666,0.047204
-0.01224306,-0.04064058,-0.01721388,0.069614,-0.997090,0.031059
0.01335022,-0.04006258,-0.01338786,-0.034996,-0.997923,0.054085
0.01311545,-0.04004963,-0.01317986,-0.011141,-0.999617,0.025320
0.01302794,-0.04000840,-0.01278145,-0.070466,-0.994348,0.079414
0.01285262,-0.04004248,-0.01388984,-0.034754,-0.992171,0.119957
0.01223722,-0.04003511,-0.01338903,0.034442,-0.998813,-0.034442
0.00853000,-0.03996555,-0.01474428,-0.178944,-0.982413,0.053328
0.00883482,-0.03994556,-0.01310063,-0.034787,-0.998268,-0.047436
0.00791924,-0.03991507,-0.01353564,-0.011184,-0.999441,0.031518
0.00669209,-0.03994389,-0.01433911,-0.032225,-0.998961,0.032225
-0.00344245,-0.04047372,-0.02000489,0.067937,-0.994551,0.079074
-0.00503164,-0.04056590,-0.02084055,0.090300,-0.995481,0.029375
-0.00574358,-0.04054031,-0.02002096,0.043742,-0.992600,0.113280
-0.00591460,-0.04048605,-0.01920307,-0.018234,-0.996417,0.082588
-0.00200007,-0.04028641,-0.01809909,0.086124,-0.996270,0.005316
0.00200692,-0.04002349,-0.01504427,-0.032482,-0.998549,0.042960
0.00095457,-0.04008145,-0.01521663,0.042699,-0.998749,-0.026036
0.00264747,-0.04000223,-0.01499993,0.009351,-0.998439,0.055065
0.00530588,-0.03997619,-0.01572230,-0.002973,-0.999936,0.010901
0.00632984,-0.03991346,-0.01354339,0.031710,-0.999379,-0.015344
0.00270640,-0.03996491,-0.01354477,0.164165,-0.986138,-0.024108
0.00363420,-0.03991307,-0.01341439,0.046542,-0.996873,0.063860
0.01251617,-0.03997992,-0.00892927,-0.032029,-0.999098,-0.027896
0.02263094,-0.04056177,-0.00547540,-0.058530,-0.990417,0.125093
0.02198808,-0.04045432,-0.00518221,-0.174303,-0.982976,0.058101
0.01768492,-0.04012405,-0.00649943,-0.230999,-0.971663,0.050111
0.02112671,-0.04040398,-0.00506061,-0.177013,-0.971664,-0.156638
0.02891534,-0.04151835,0.00138118,-0.176534,-0.963746,-0.200072
0.03146405,-0.04336962,0.00607534,-0.572425,-0.801999,-0.170670
0.03631663,-0.04647346,0.00685559,-0.084756,-0.993346,-0.077976
0.03678386,-0.04653646,0.00722377,-0.131337,-0.984424,-0.116878
0.03589992,-0.04561665,-0.00050862,-0.555097,-0.826157,-0.096601
0.03686628,-0.04598745,-0.00485469,-0.388636,-0.904904,0.173524
0.03771517,-0.04626519,-0.00266702,-0.225542,-0.974198,-0.008266
0.03943294,-0.04650765,-0.00293942,-0.113526,-0.985881,0.123086
0.03894359,-0.04643227,-0.00146811,-0.032812,-0.998115,0.051864
0.03737186,-0.04622974,-0.00056202,-0.161644,-0.986817,0.007913
0.04057057,-0.04650290,0.00064933,-0.007144,-0.999182,0.039804
0.04053500,-0.04653468,0.00245043,0.111840,-0.993276,-0.029898
0.01095009,-0.04719840,0.03209652,0.031623,-0.995589,-0.088327
0.01325599,-0.04716936,0.03158616,-0.015805,-0.997807,-0.064273
0.01353628,-0.04720187,0.03185824,0.004926,-0.999976,0.004926
0.01492083,-0.04719823,0.03171283,0.005034,-0.999671,-0.025168
0.01313491,-0.04667303,0.02916932,-0.148381,-0.885962,-0.439380
0.01617230,-0.04714906,0.03176820,-0.009517,-0.997132,-0.075076
0.01600398,-0.04714331,0.03137735,0.074451,-0.997224,-0.001049
0.01518584,-0.04618491,0.02744193,-0.232612,-0.757159,-0.610411
0.01669846,-0.04668356,0.02777579,-0.157314,-0.950610,-0.267569
0.01471331,-0.04387665,0.02443518,-0.235267,-0.774355,-0.587388
0.01404756,-0.04339221,0.02399907,-0.224038,-0.792631,-0.567048
0.01679854,-0.04424854,0.02393203,-0.204002,-0.789934,-0.578262
0.00878635,-0.04191925,0.02251584,-0.074943,-0.940071,-0.332641
0.01136404,-0.04178177,0.02122424,-0.087049,-0.952347,-0.292330
0.01055493,-0.04180154,0.02162873,0.010877,-0.965594,-0.259828
0.00752890,-0.04167566,0.02155433,-0.051061,-0.982031,-0.181682
0.00700584,-0.04202171,0.02313323,-0.091927,-0.956815,-0.275780
0.00898168,-0.04292551,0.02488056,-0.128023,-0.904602,-0.406578
0.00952331,-0.04326716,0.02541242,-0.050706,-0.881180,-0.470054
0.01034774,-0.04409025,0.02631727,-0.236417,-0.746828,-0.621574
0.00677895,-0.04432981,0.02740108,-0.034607,-0.834733,-0.549567
-0.00295694,-0.04020515,-0.01654701,-0.007631,-0.993144,0.116648
-0.00471075,-0.04022874,-0.01551879,0.147640,-0.986238,0.074411
-0.00800148,-0.04031303,-0.01467479,0.042635,-0.995898,0.079803
-0.00967686,-0.04038855,-0.01448677,0.032189,-0.993423,0.109887
-0.00613114,-0.04023384,-0.01418625,0.011053,-0.999793,0.017082
-0.00208314,-0.04008141,-0.01405380,-0.005326,-0.995879,0.090534
-0.00559564,-0.04018237,-0.01261960,0.034442,-0.998813,-0.034442
-0.00515222,-0.04013074,-0.01185439,0.029785,-0.999324,0.021568
-0.00375186,-0.04006686,-0.01252364,0.109879,-0.993349,0.034407
-0.00324829,-0.04001643,-0.01110272,0.069839,-0.997558,0.001042
-0.00096231,-0.04000064,-0.01289901,-0.033686,-0.999344,0.013270
0.01229821,-0.03998711,-0.00775884,-0.044149,-0.998999,-0.007187
0.00483471,-0.03984363,-0.01007397,-0.011184,-0.999441,0.031518
0.00507640,-0.03986274,-0.01104642,0.025987,-0.998922,-0.038460
0.00945830,-0.03992953,-0.00799417,-0.038851,-0.998569,-0.036751
0.00882751,-0.03990808,-0.00765519,-0.037799,-0.996817,0.070198
0.01343832,-0.03998241,-0.00659836,-0.029486,-0.999478,0.013218
-0.00540989,-0.04011153,-0.01016930,0.025508,-0.992606,0.118669
-0.00270211,-0.03998543,-0.01021055,0.093836,-0.994656,0.043054
-0.00240673,-0.03997600,-0.00990060,-0.020338,-0.996565,0.080282
-0.00144888,-0.03998839,-0.01093404,0.033541,-0.996481,0.076819
-0.00211095,-0.03997485,-0.00982161,-0.018195,-0.996432,0.082412
-0.00159341,-0.03996028,-0.01041176,-0.044709,-0.989323,0.138712
-0.00162723,-0.03993931,-0.00978623,0.040782,-0.998642,-0.032417
-0.00645769,-0.04008298,-0.00928601,0.036453,-0.998814,-0.032287
-0.00477383,-0.04000933,-0.00915282,-0.001020,-0.998945,-0.045917
-0.00731480,-0.04015398,-0.00971110,0.155849,-0.987046,-0.038097
-0.00643683,-0.04007010,-0.00791464,0.270745,-0.960830,0.059186
0.00166851,-0.03992870,-0.01032326,0.030690,-0.997954,-0.056089
0.00179041,-0.03987921,-0.00908859,-0.066122,-0.994073,0.086295
0.00321327,-0.03985984,-0.00984051,-0.017982,-0.997472,-0.068755
0.00741586,-0.03987349,-0.00663807,-0.070346,-0.983659,-0.165732
0.01056599,-0.03995110,-0.00420330,-0.078136,-0.993122,-0.087195
0.01371929,-0.03998314,-0.00589450,0.017217,-0.999626,0.021269
0.02038469,-0.04031238,-0.00349143,-0.034301,-0.998892,-0.032222
0.01914318,-0.04019152,-0.00319323,-0.068227,-0.994323,0.081649
0.02293583,-0.04052938,-0.00399176,-0.162278,-0.986326,-0.028773
0.02169776,-0.04045424,-0.00324094,-0.088795,-0.996003,-0.009628
0.01993384,-0.04028077,-0.00236273,-0.041196,-0.998212,0.043309
0.01584959,-0.04004546,-0.00402286,0.001071,-0.995026,0.099610
0.01658050,-0.04006217,-0.00359784,-0.050362,-0.984984,0.165140
0.01426220,-0.03997191,-0.00271133,-0.019629,-0.998995,-0.040290
0.01316613,-0.03994985,-0.00271495,-0.007428,-0.996452,0.083834
0.00676577,-0.03981898,-0.00572149,-0.003140,-0.997533,0.070131
0.00594386,-0.03985131,-0.00608919,0.103008,-0.992730,-0.062258
0.00708743,-0.03987616,-0.00355296,-0.079970,-0.995785,-0.044914
0.00665995,-0.03986019,-0.00349369,-0.115947,-0.976201,0.183271
-0.00084044,-0.03992851,-0.00770744,0.058068,-0.995924,-0.069024
0.00710080,-0.03988250,-0.00318725,0.053473,-0.996348,-0.066569
0.00597061,-0.03984635,-0.00323912,0.021397,-0.999542,-0.021397
0.01586207,-0.04001227,-0.00277273,-0.064512,-0.996103,0.060138
0.01228829,-0.03996615,-0.00150858,-0.019708,-0.998901,0.042528
0.01288447,-0.03998572,-0.00009285,-0.059406,-0.996942,-0.050765
0.01236847,-0.03999097,0.00042486,0.011633,-0.997266,-0.072971
0.01935000,-0.04025668,-0.00078611,-0.072956,-0.996335,-0.044645
0.02258636,-0.04052640,-0.00180969,-0.033407,-0.996830,-0.072203
0.02429428,-0.04087844,0.00381066,-0.078688,-0.987708,-0.135061
0.02464050,-0.04086622,0.00278558,-0.092647,-0.995694,0.003195
0.02553130,-0.04101100,0.00325317,-0.052825,-0.997206,-0.052825
0.02110988,-0.04053914,0.00298413,-0.129610,-0.991461,0.014401
0.02033345,-0.04051311,0.00388473,0.011385,-0.998751,-0.048644
0.01949925,-0.04038051,0.00338303,-0.185179,-0.973763,-0.132270
0.01980011,-0.04045380,0.00419048,-0.187129,-0.982137,0.019759
0.01849181,-0.04028621,0.00290534,-0.151311,-0.987562,-0.042737
0.01915863,-0.04052817,0.00587279,-0.038227,-0.999076,-0.019630
0.01868634,-0.04059921,0.00707144,-0.022482,-0.996688,-0.078151
0.02895320,-0.04202431,0.00639870,-0.308915,-0.945305,-0.104739
0.02952058,-0.04228868,0.00626287,-0.517788,-0.830587,-0.204989
0.03687207,-0.04668426,0.00951552,-0.060563,-0.997689,-0.030813
0.03479058,-0.04669029,0.01224422,-0.031811,-0.994927,-0.095434
0.03573354,-0.04675093,0.01241947,-0.100216,-0.994453,-0.031937
0.03894048,-0.04666775,0.00803088,-0.007415,-0.996811,-0.079448
0.04127701,-0.04617539,0.00686147,0.426213,-0.900702,0.084139
0.04036675,-0.04654264,0.00659795,0.184102,-0.980677,0.066181
0.03856862,-0.04669048,0.00930805,-0.001007,-0.999513,0.031203
0.03701423,-0.04678083,0.01243737,0.066097,-0.997746,0.011541
0.03153586,-0.04447211,0.00923067,-0.608000,-0.758047,-0.236010
0.03138595,-0.04423483,0.00891291,-0.633564,-0.725661,-0.268352
0.03124414,-0.04441829,0.00975313,-0.501704,-0.793429,-0.344621
0.02731567,-0.04155001,0.00679806,-0.264720,-0.959450,-0.096849
0.02618666,-0.04141138,0.00811729,-0.121667,-0.966936,-0.224124
0.02452101,-0.04113409,0.00765316,-0.003122,-0.997978,-0.063479
0.02312777,-0.04104951,0.00836418,-0.080072,-0.993568,-0.080072
0.02126677,-0.04089550,0.00823485,-0.185718,-0.977787,-0.097164
0.02007656,-0.04083045,0.00899115,-0.087469,-0.983723,-0.156964
0.01886474,-0.04066972,0.00837434,-0.077642,-0.993592,-0.082143
0.01920139,-0.04071681,0.00850660,-0.205700,-0.973647,-0.098487
0.02187155,-0.04123672,0.01186534,-0.161261,-0.985225,-0.057677
0.02557683,-0.04143996,0.00912191,-0.096626,-0.992402,-0.076164
0.02493116,-0.04179234,0.01223357,-0.207026,-0.951235,-0.228675
0.02556357,-0.04202918,0.01238668,-0.329101,-0.878109,-0.347300
0.02731366,-0.04195051,0.00926121,-0.350223,-0.904133,-0.244717
0.03160515,-0.04545018,0.01153653,-0.537791,-0.793282,-0.285455
0.03771530,-0.04664240,0.01367799,0.245876,-0.961390,0.123589
0.04182695,-0.04394460,0.01191147,0.869608,-0.296976,0.394446
0.04198317,-0.04427197,0.01120398,0.761489,-0.530932,0.371814
0.03979500,-0.04389055,0.01605492,0.821457,-0.265537,0.504676
0.03920573,-0.04247436,0.01750557,0.835896,-0.017785,0.548600
-0.03089545,-0.03479189,-0.03555993,-0.697926,0.041222,-0.714983
-0.03056531,-0.03566096,-0.03596430,-0.645926,-0.020926,-0.763113
-0.03095944,-0.03336227,-0.03530073,-0.701131,0.029625,-0.712417
-0.03264879,-0.03612726,-0.03383871,-0.762057,0.035215,-0.646551
-0.03084174,-0.03229581,-0.03530250,-0.690166,0.079914,-0.719225
-0.03239181,-0.03360002,-0.03384879,-0.774845,0.070440,-0.628214
-0.03263701,-0.03424602,-0.03364537,-0.668459,0.067857,-0.740647
-0.03115846,-0.03158252,-0.03491452,-0.716055,0.086043,-0.692721
-0.03063363,-0.02996134,-0.03522417,-0.678090,0.117219,-0.725571
-0.02786982,-0.03382725,-0.03824748,-0.540781,-0.026145,-0.840757
-0.02908665,-0.02844986,-0.03649459,-0.629992,0.110654,-0.768678
-0.02939457,-0.03169750,-0.03664824,-0.679053,0.067761,-0.730955
-0.02896293,-0.02534375,-0.03608768,-0.718999,0.159609,-0.676436
-0.03000293,-0.02307042,-0.03474462,-0.733458,0.076977,-0.675362
-0.02945548,-0.02347159,-0.03537425,-0.708662,0.089131,-0.699895
-0.02748546,-0.02244324,-0.03691024,-0.665973,0.179124,-0.724150
-0.02760100,-0.02162932,-0.03675417,-0.694805,0.098418,-0.712432
-0.02964481,-0.02152737,-0.03482239,-0.646193,0.123297,-0.753149
-0.03149774,-0.02650651,-0.03376352,-0.771561,0.101020,-0.628083
-0.02878104,-0.02164150,-0.03570869,-0.694456,0.055843,-0.717365
-0.03175997,-0.02487837,-0.03319611,-0.736232,0.076963,-0.672338
-0.03222308,-0.02859725,-0.03328903,-0.769543,0.085828,-0.632800
-0.03175799,-0.02900684,-0.03391552,-0.760023,0.142411,-0.634102
-0.03252451,-0.03145275,-0.03339004,-0.757762,0.079688,-0.647647
-0.03405631,-0.03496264,-0.03206419,-0.749242,0.095305,-0.655403
-0.03035868,-0.03905404,-0.03646809,-0.747703,0.043983,-0.662575
-0.02739445,-0.03571578,-0.03879935,-0.594345,0.201187,-0.778638
-0.02255802,-0.02927033,-0.04153452,-0.363875,0.116715,-0.924106
-0.02299357,-0.03103460,-0.04149828,-0.540637,0.156383,-0.826593
-0.02231477,-0.02816589,-0.04154497,-0.571384,0.128451,-0.810568
-0.02280656,-0.02785939,-0.04120987,-0.566290,0.015083,-0.824068
-0.02223988,-0.02796049,-0.04156824,-0.548850,0.112099,-0.828370
-0.02344417,-0.02759210,-0.04072653,-0.540796,0.130436,-0.830979
-0.02245379,-0.02380989,-0.04086126,-0.478415,0.124991,-0.869193
-0.02054729,-0.02526056,-0.04213076,-0.468752,0.159171,-0.868871
-0.02208555,-0.02332721,-0.04101022,-0.551350,0.078357,-0.830586
-0.02347064,-0.02281703,-0.04002452,-0.498514,0.083321,-0.862868
-0.02488299,-0.01797859,-0.03851228,-0.587834,0.085214,-0.804481
-0.02476650,-0.01856609,-0.03864466,-0.649088,0.110892,-0.752587
-0.02460334,-0.02030436,-0.03896892,-0.508031,0.123027,-0.852507
-0.02084394,-0.02084496,-0.04139622,-0.554944,0.213677,-0.803977
-0.02032436,-0.02142480,-0.04178704,-0.492923,0.071216,-0.867154
-0.02061348,-0.02064841,-0.04150230,-0.505259,0.213938,-0.836029
-0.02155744,-0.02080550,-0.04099118,-0.512508,0.132872,-0.848340
-0.02205512,-0.01900555,-0.04048241,-0.550323,0.028964,-0.834449
-0.02220538,-0.01857073,-0.04035727,-0.537423,0.051648,-0.841730
-0.01996922,-0.02098993,-0.04194563,-0.405967,0.071961,-0.911050
-0.02097094,-0.01708968,-0.04099054,-0.466029,0.146632,-0.872534
-0.02010516,-0.01531608,-0.04130140,-0.477392,0.150371,-0.865728
-0.01951374,-0.01395288,-0.04155775,-0.426112,0.086877,-0.900489
-0.01958477,-0.01594494,-0.04166415,-0.405546,0.127698,-0.905111
-0.01841007,-0.01422588,-0.04216811,-0.429531,0.084249,-0.899114
-0.01841047,-0.01526180,-0.04221336,-0.471812,0.082602,-0.877822
-0.01719880,-0.01332674,-0.04267313,-0.386302,0.151408,-0.909861
-0.01671098,-0.01587789,-0.04303913,-0.420532,0.086864,-0.903110
-0.01695032,-0.01630731,-0.04293793,-0.384678,0.132889,-0.913435
-0.01697179,-0.01663242,-0.04297384,-0.350377,0.016563,-0.936462
-0.01744198,-0.01748452,-0.04286439,-0.308777,0.145547,-0.939932
-0.01991989,-0.01961541,-0.04177013,-0.500986,-0.132144,-0.855307
-0.02072363,-0.02409778,-0.04191793,-0.458224,0.178280,-0.870774
-0.01764499,-0.02600322,-0.04369414,-0.399194,0.091911,-0.912248
-0.01889761,-0.02114130,-0.04248261,-0.449639,0.108534,-0.886592
-0.01952682,-0.04102812,-0.00988858,0.173539,-0.984165,-0.036105
-0.01928083,-0.04106209,-0.00850725,0.317874,-0.937249,0.143248
-0.01982700,-0.04124293,-0.01529737,0.115733,-0.993104,0.018738
-0.01665996,-0.04091792,-0.01540437,0.201015,-0.969224,0.142119
-0.01543065,-0.04079784,-0.01554891,0.069461,-0.995603,0.062845
-0.00966660,-0.04025454,-0.00871216,0.020258,-0.996925,0.075702
-0.01580788,-0.04082739,-0.01510721,0.127788,-0.988302,0.083238
-0.01521581,-0.04072161,-0.01454869,0.156189,-0.987696,-0.007866
-0.01372818,-0.04051002,-0.01194793,0.039083,-0.998203,0.045421
-0.01403476,-0.04056755,-0.01372924,0.064256,-0.996506,0.053365
-0.01415660,-0.04059134,-0.01271767,0.093634,-0.995536,0.011839
-0.01305958,-0.04038261,-0.01049568,0.121415,-0.984544,0.126224
-0.01762231,-0.04102552,-0.01510673,0.222262,-0.970668,0.091667
-0.01677269,-0.04083444,-0.01406722,0.175035,-0.984136,0.028979
0.04105810,-0.04625156,-0.01662150,0.454714,-0.866193,-0.207230
0.03968389,-0.04657114,-0.00605119,-0.039966,-0.999159,0.009223
0.03978765,-0.04658112,-0.00631941,-0.060314,-0.997829,0.026454
0.03570607,-0.04527890,-0.00613749,-0.580692,-0.814067,-0.009610
0.03558600,-0.04520141,-0.00647917,-0.638349,-0.762186,0.107620
0.03816916,-0.04647235,-0.00826208,-0.112087,-0.993247,0.029964
0.03683366,-0.04601328,-0.00761775,-0.411521,-0.906999,0.089461
-0.02600601,-0.04723104,0.02329460,0.061508,-0.994189,-0.088347
-0.02893228,-0.04721004,0.02343247,0.028289,-0.998487,0.047148
-0.02104528,-0.04636532,0.02333151,0.298117,-0.809173,-0.506325
-0.02038455,-0.04607676,0.02329857,0.361468,-0.795229,-0.486777
-0.01931216,-0.04695169,0.02597922,0.244754,-0.891496,-0.381222
-0.01915229,-0.04701437,0.02620227,0.205920,-0.878493,-0.431099
-0.01859921,-0.04705645,0.02665220,0.198308,-0.938842,-0.281514
-0.02304578,-0.04727894,0.02463895,0.029439,-0.995462,-0.090497
-0.02245552,-0.04741599,0.02652304,-0.121497,-0.991276,-0.051097
-0.01844815,-0.04719462,0.02718592,0.192666,-0.938380,-0.286920
-0.01790563,-0.04460441,0.02276563,0.333921,-0.790865,-0.512864
-0.01735830,-0.04345748,0.02125554,0.348982,-0.840374,-0.414709
-0.01623707,-0.04355850,0.02214500,0.296000,-0.825355,-0.480805
-0.01447179,-0.04432070,0.02432892,0.393873,-0.750157,-0.531157
-0.01446284,-0.04301036,0.02204527,0.280071,-0.873518,-0.398155
-0.01378427,-0.04171360,0.01784477,0.051281,-0.996163,-0.070921
-0.00046521,-0.04738522,0.03378501,-0.040634,-0.985673,-0.163698
0.00015980,-0.04726148,0.03555496,-0.038755,-0.982961,0.179681
-0.00616175,-0.04734219,0.03463884,0.003469,-0.979310,0.202337
0.03945005,-0.04652187,-0.01930153,0.137336,-0.990383,-0.016748
0.03843668,-0.04661841,-0.01936131,0.035367,-0.999374,-0.001010
0.03940666,-0.04672713,-0.01353839,-0.012163,-0.991808,0.127155
0.04251789,-0.04617032,-0.01019616,0.466466,-0.881718,-0.070593
0.03868255,-0.04667043,-0.01144596,-0.024048,-0.998502,0.049141
0.03490884,-0.04579905,-0.01594446,-0.600373,-0.752447,0.270881
0.03508186,-0.04615900,-0.01751755,-0.404804,-0.904110,0.136815
0.04068530,-0.04581001,-0.02003652,0.430258,-0.840176,-0.330125
0.03394001,-0.04651663,-0.02269873,-0.198669,-0.937772,0.284805
0.03732017,-0.04664910,-0.02285201,0.153581,-0.987309,0.040416
0.03548254,-0.04663716,-0.02204698,-0.046724,-0.996408,0.070629
0.03231719,-0.04576036,-0.02170366,-0.483843,-0.792474,0.371322
0.02884923,-0.04664071,-0.03021738,-0.109184,-0.985059,0.133181
0.02619591,-0.04673803,-0.03406820,-0.009835,-0.993347,0.114743
0.01956154,-0.04639877,-0.03642714,-0.193345,-0.924386,0.328828
0.01960735,-0.04643187,-0.03649793,-0.169997,-0.945185,0.278795
-0.00565255,-0.04536773,-0.04728590,-0.223454,-0.676613,-0.701615
-0.00739636,-0.04361993,-0.04787841,-0.184266,-0.238066,-0.953609
-0.01039077,-0.04448278,-0.04702448,-0.242046,-0.422452,-0.873469
-0.01119910,-0.04450217,-0.04685499,-0.192513,-0.427644,-0.883210
-0.00933730,-0.03961820,-0.04753849,-0.196558,-0.001149,-0.980491
-0.01339468,-0.04297964,-0.04665061,-0.222787,-0.034923,-0.974241
-0.01428695,-0.04333546,-0.04633888,-0.178080,-0.031426,-0.983514
-0.01032103,-0.04025701,-0.04740918,-0.164790,0.149695,-0.974903
-0.01098289,-0.04024563,-0.04724756,-0.246567,0.161268,-0.955614
-0.01143301,-0.04119553,-0.04718760,-0.234141,0.128066,-0.963731
-0.01209486,-0.03958189,-0.04689587,-0.218041,0.001166,-0.975939
-0.01399099,-0.04118627,-0.04642173,-0.286521,0.015986,-0.957940
-0.01444948,-0.04144640,-0.04630253,-0.248640,0.076990,-0.965531
-0.01308556,-0.03861761,-0.04652484,-0.282853,0.158344,-0.946003
-0.01856478,-0.04493739,-0.04414389,-0.394670,-0.488872,-0.777972
-0.01834581,-0.04335128,-0.04484900,-0.456527,-0.106005,-0.883372
-0.01903125,-0.04046510,-0.04442120,-0.455101,0.006596,-0.890415
-0.02301183,-0.04029381,-0.04233391,-0.472525,0.192289,-0.860084
-0.02655786,-0.04389657,-0.03999694,-0.681557,-0.240827,-0.691001
-0.02401401,-0.04613034,-0.04014445,-0.381305,-0.658618,-0.648714
-0.01712234,-0.04700536,-0.04082705,-0.003312,-0.990424,-0.138019
-0.01559088,-0.04687414,-0.04230028,0.091666,-0.978996,-0.182110
-0.01384200,-0.04677748,-0.04290083,-0.176393,-0.978179,-0.109783
-0.01462935,-0.04661660,-0.04372701,-0.255433,-0.909340,-0.328413
0.03126481,-0.04646739,-0.02640883,-0.156604,-0.975958,0.151593
0.03160301,-0.04651427,-0.02615130,-0.308724,-0.920427,0.239799
-0.01333506,0.05037706,-0.04635962,-0.112190,0.826124,-0.552207
-0.00550816,0.05108584,-0.04671270,-0.003700,0.950873,-0.309558
-0.00513942,0.04733862,-0.04876098,-0.052617,-0.160188,-0.985683
-0.00640262,0.04635708,-0.04845872,-0.310121,-0.134070,-0.941196
-0.00984322,0.04815861,-0.04808591,-0.192667,-0.141629,-0.970990
-0.01132962,0.04696202,-0.04770180,-0.240819,-0.128871,-0.961976
-0.00954296,0.05020100,-0.04752890,-0.015330,0.681493,-0.731664
-0.00770652,0.05035133,-0.04774453,-0.082910,0.673464,-0.734556
0.03062181,-0.04583266,-0.02476701,-0.433562,-0.856401,0.280360
-0.02398654,0.05080823,-0.04043004,-0.218234,0.968652,-0.118689
-0.02201061,0.05039411,-0.04270949,-0.447627,0.779685,-0.437861
-0.01956655,0.04900262,-0.04485332,-0.263977,0.269685,-0.926060
-0.02172779,0.04748958,-0.04390663,-0.393609,0.001282,-0.919277
-0.02153430,0.04689960,-0.04399670,-0.387038,-0.106057,-0.915944
-0.02176390,0.04678098,-0.04385976,-0.489321,-0.097864,-0.866595
-0.01968216,0.05073342,-0.04313258,-0.142272,0.941708,-0.304869
-0.01591281,0.04970687,-0.04609327,-0.287705,0.474324,-0.832011
-0.01557034,0.05025959,-0.04577546,-0.208559,0.773986,-0.597870
-0.01146188,0.05114250,-0.04384064,-0.025218,0.999657,-0.007061
-0.02215595,-0.04136533,-0.01409466,0.175483,-0.983410,0.045932
-0.02098021,-0.04118700,-0.01199850,0.076474,-0.991883,-0.101585
-0.01106140,-0.04024084,-0.00745839,-0.028632,-0.997887,0.058325
-0.01519708,-0.04050943,-0.00887420,0.064803,-0.997545,0.026559
-0.01354396,-0.04039764,-0.00743172,0.096527,-0.989688,0.105830
-0.01004229,-0.04020545,-0.00602936,-0.024194,-0.998267,-0.053648
-0.01376847,-0.04035855,-0.00550849,0.108365,-0.993156,0.043569
-0.01670632,-0.04050357,-0.00544291,0.009313,-0.998563,-0.052774
-0.01914073,-0.04096447,-0.00371454,0.081023,-0.845769,0.527362
-0.01755737,-0.04070908,-0.00284550,0.064941,-0.997534,0.026615
-0.00321186,-0.03994539,-0.00727768,-0.003582,-0.968355,-0.249551
-0.00316984,-0.03984522,-0.00564166,0.246465,-0.964150,0.098331
0.00100741,-0.03981551,-0.00621546,0.055559,-0.992125,0.112252
0.00233148,-0.03989479,-0.00664878,-0.057901,-0.984321,0.166614
0.00634247,-0.03988000,-0.00196763,0.005755,-0.981784,0.189911
0.00817837,-0.03993392,-0.00228181,0.013324,-0.999268,-0.035871
0.00739500,-0.03996705,0.00012530,-0.027678,-0.993091,-0.114034
0.00245038,-0.03998752,0.00056218,-0.007200,-0.998805,0.048346
0.00246210,-0.03991127,-0.00051915,-0.054975,-0.997090,-0.052819
0.00168191,-0.04020345,0.00350964,0.057845,-0.998081,-0.022086
0.00619808,-0.04003392,0.00138739,0.104515,-0.994509,-0.005387
0.00656081,-0.03999102,0.00123725,0.023715,-0.999139,-0.034026
0.00880752,-0.03995299,-0.00200827,-0.015464,-0.998987,0.042269
0.00943357,-0.04000271,0.00051335,-0.034720,-0.998466,-0.043137
0.00967718,-0.04002007,0.00169310,0.023575,-0.999394,0.025625
0.00887847,-0.04004389,0.00168884,0.096581,-0.995112,0.020618
0.00724397,-0.04004746,0.00222255,0.077017,-0.997002,-0.007385
0.00770971,-0.04010257,0.00398159,0.076536,-0.997066,-0.001048
0.00781689,-0.04009467,0.00408567,0.058843,-0.998267,0.001032
0.00927173,-0.04011424,0.00521080,0.003189,-0.996095,0.088235
0.01259338,-0.04006772,0.00315491,-0.056670,-0.997609,-0.039562
0.02059915,-0.04109046,0.01168682,-0.096640,-0.994173,-0.047765
0.01664468,-0.04065014,0.00976196,0.060392,-0.995925,0.066981
0.01369168,-0.04035728,0.00784183,-0.152980,-0.988229,-0.001117
0.01319923,-0.04039976,0.00897869,-0.009892,-0.992481,-0.121999
0.02154975,-0.04175785,0.01563482,-0.222031,-0.949423,-0.222031
0.01839699,-0.04129745,0.01540482,-0.153782,-0.976455,-0.151282
0.01797661,-0.04123487,0.01528318,-0.117084,-0.987528,-0.105258
0.01832337,-0.04117321,0.01441550,-0.135928,-0.986954,-0.086285
0.02702041,-0.04408892,0.01565109,-0.658726,-0.665264,-0.351430
0.02537820,-0.04360475,0.01649846,-0.439646,-0.786820,-0.433157
0.02482740,-0.04349738,0.01683491,-0.295459,-0.864943,-0.405681
0.01915209,-0.04164291,0.01704891,-0.191785,-0.971624,-0.138441
0.01880963,-0.04146953,0.01639375,-0.206874,-0.970910,-0.120571
0.01754115,-0.04093338,0.01259480,-0.015927,-0.997027,-0.075388
0.01758427,-0.04160111,0.01772113,-0.156292,-0.982579,-0.100560
0.01810630,-0.04200750,0.01901904,-0.194060,-0.942776,-0.271134
0.02162854,-0.04305542,0.01892514,-0.393873,-0.750157,-0.531157
0.02400841,-0.04411698,0.01884199,-0.485748,-0.724477,-0.489063
0.02904181,-0.04508140,0.01482386,-0.580723,-0.751240,-0.313687
0.02746436,-0.04262325,0.01144092,-0.431254,-0.870022,-0.238918
0.03059995,-0.04467471,0.01155325,-0.593852,-0.733011,-0.331716
0.03060541,-0.04516430,0.01264810,-0.517095,-0.793939,-0.319803
0.03123346,-0.04582017,0.01304939,-0.563728,-0.724793,-0.396089
0.03824032,-0.04446935,0.01827864,0.728631,-0.393099,0.560865
0.03713265,-0.04639823,0.01642664,0.330368,-0.923046,0.197087
0.03376371,-0.04680896,0.01954509,0.130240,-0.985763,0.106343
0.03544204,-0.04615644,0.01987728,0.457823,-0.811957,0.362111
0.01906990,-0.04681759,-0.03890686,-0.065475,-0.997147,-0.037567
0.01722281,-0.04680874,-0.04067582,0.017808,-0.998299,-0.055519
0.01917380,-0.04680927,-0.03920591,0.017150,-0.999738,-0.015132
0.01985224,-0.04682416,-0.03868375,0.025508,-0.992606,0.118669
0.01701826,-0.04669489,-0.04179840,0.014484,-0.990460,-0.137038
0.01344335,-0.04632350,-0.04438079,0.165804,-0.892458,-0.419556
0.01358962,-0.04666799,-0.04344309,0.240638,-0.917884,-0.315568
0.01503186,-0.04681847,-0.04117501,-0.111538,-0.992579,-0.048446
0.01524481,-0.04677953,-0.04179569,-0.073715,-0.995700,-0.056111
0.01163979,-0.04676857,-0.04361245,0.128331,-0.987793,-0.088301
0.02155367,-0.04420659,-0.04336204,0.408225,-0.398695,-0.821215
0.02341851,-0.04440865,-0.04225823,0.395494,-0.405024,-0.824342
-0.02660858,-0.03688919,-0.03953012,-0.577644,0.037764,-0.815415
-0.02624326,-0.03621200,-0.03973234,-0.582357,0.066921,-0.810174
-0.02558493,-0.03621415,-0.04023398,-0.568018,0.040473,-0.822021
-0.02571134,-0.03971990,-0.04047863,-0.605475,0.009654,-0.795806
-0.02143164,-0.03644117,-0.04288578,-0.515025,0.065957,-0.854634
-0.01916009,-0.02788221,-0.04323370,-0.407252,0.049404,-0.911978
-0.01942799,-0.02898466,-0.04323002,-0.484062,0.128602,-0.865532
-0.01942266,-0.02691487,-0.04295108,-0.467080,0.241908,-0.850481
-0.01582180,-0.02471088,-0.04428449,-0.304209,0.139260,-0.942371
-0.01621204,-0.02300356,-0.04391672,-0.499856,0.135529,-0.855439
-0.00547342,-0.03784729,-0.04808495,-0.093040,0.007486,-0.995634
0.00488153,-0.04635593,-0.04650233,0.221397,-0.856971,-0.465385
0.00445142,-0.04413098,-0.04820076,0.115086,-0.389628,-0.913753
0.00336855,-0.04623381,-0.04709663,0.089144,-0.746767,-0.659084
0.00279158,-0.04658448,-0.04669115,-0.069841,-0.819568,-0.568709
0.00662717,-0.04687440,-0.04375478,0.009115,-0.999584,-0.027344
0.00769106,-0.04686059,-0.04316994,0.012883,-0.999917,0.000991
0.00322474,-0.04450643,-0.04824155,0.035479,-0.387636,-0.921129
0.00333364,-0.04394183,-0.04842402,0.155102,-0.311577,-0.937477
-0.00995301,-0.03619285,-0.04719376,-0.247238,0.117794,-0.961768
-0.01278396,-0.03717660,-0.04651588,-0.221233,0.088743,-0.971175
-0.01429220,-0.03512353,-0.04589643,-0.277536,0.072901,-0.957945
-0.01439552,-0.03547455,-0.04586532,-0.398881,0.080321,-0.913478
-0.01267418,-0.02933670,-0.04588697,-0.338173,0.080896,-0.937601
-0.01421373,-0.03018492,-0.04548132,-0.332285,0.175256,-0.926753
-0.03286982,-0.04464665,0.02386236,-0.696206,-0.329440,0.637783
-0.03192300,-0.04443823,0.02501537,-0.692701,-0.265933,0.670407
-0.03310589,-0.04343728,0.02409251,-0.769190,-0.145441,0.622249
-0.03423285,-0.04314558,0.02280677,-0.808056,-0.082102,0.583356
-0.03544518,-0.04376975,0.02110279,-0.825365,-0.222037,0.519107
-0.03529747,-0.04486589,0.02077978,-0.682876,-0.417036,0.599801
-0.03657056,-0.04241653,0.01973779,-0.854310,-0.062920,0.515942
-0.03809851,-0.04033983,0.01736676,-0.856301,0.023143,0.515959
-0.03864857,-0.04282242,0.01626848,-0.877526,-0.053558,0.476528
-0.03954416,-0.04437070,0.01418216,-0.806167,-0.362376,0.467737
-0.03946118,-0.04468706,0.01403312,-0.827860,-0.368817,0.422636
-0.03915535,-0.04494812,0.01439155,-0.797273,-0.462257,0.388167
-0.04089613,-0.04020262,0.01182734,-0.902351,0.014490,0.430757
-0.04118603,-0.03719052,0.01054962,-0.961031,0.043627,0.272978
-0.03984172,-0.03675843,0.01372585,-0.891024,0.067273,0.448944
-0.03924051,-0.03523571,0.01473678,-0.894358,0.120095,0.430931
-0.03918013,-0.04159103,0.01547260,-0.906377,0.055218,0.418846
-0.03770768,-0.03928062,0.01794977,-0.847960,0.031610,0.529116
-0.03680335,-0.03611745,0.01909870,-0.825621,0.023432,0.563738
-0.03861142,-0.03187267,0.01549841,-0.876849,0.106242,0.468880
-0.03851453,-0.02901684,0.01515198,-0.864673,0.103989,0.491453
-0.02990127,0.05097308,-0.03428393,-0.051393,0.996146,-0.071075
0.01042838,-0.04070679,0.01314478,-0.052743,-0.993140,-0.104364
0.01043103,-0.04090732,0.01484023,-0.035207,-0.997528,-0.060812
0.00954916,-0.04062141,0.01234314,0.007866,-0.987696,-0.156189
0.01142041,-0.04104866,0.01579222,-0.036667,-0.980553,-0.192799
0.01164323,-0.04054231,0.01086279,-0.082143,-0.993592,-0.077642
0.01158458,-0.04058959,0.01138944,-0.080050,-0.989602,-0.119495
0.01272751,-0.04071571,0.01251168,0.013667,-0.997711,-0.066234
0.01633644,-0.04106773,0.01461403,0.031374,-0.996383,-0.078975
0.01499115,-0.04097677,0.01430374,-0.072044,-0.991467,-0.108638
0.01599916,-0.04111931,0.01533882,-0.173897,-0.982218,-0.070758
-0.03634071,-0.03560567,0.01976898,-0.820807,0.037626,0.569966
-0.03575842,-0.03515204,0.02053199,-0.805527,0.072970,0.588049
-0.03583002,-0.03337274,0.02022929,-0.833539,-0.031793,0.551546
-0.03847617,-0.02773859,0.01493274,-0.879718,0.118341,0.460533
-0.03942385,-0.03272847,0.01396761,-0.920672,0.032741,0.388961
-0.04063295,-0.03280038,0.01120053,-0.936182,0.056302,0.346977
-0.04054687,-0.03033979,0.01092353,-0.936182,0.056302,0.346977
-0.04061551,-0.02973360,0.01057113,-0.917104,0.082879,0.389939
-0.04108451,-0.03167954,0.00983527,-0.962696,0.043477,0.267070
-0.04022277,-0.02919728,0.01144054,-0.907886,0.103956,0.406123
-0.03522028,-0.03477029,0.02119577,-0.824741,-0.023485,0.565023
-0.03610458,-0.04223467,0.02043371,-0.779285,-0.015280,0.626484
-0.03523305,-0.03893494,0.02165443,-0.794254,0.110109,0.597526
-0.03548308,-0.03727527,0.02113980,-0.831185,0.023433,0.555502
-0.03516876,-0.03711975,0.02155216,-0.778696,0.061438,0.624386
-0.03434214,-0.03915852,0.02283430,-0.735697,0.035302,0.676390
-0.03479869,-0.04050463,0.02231147,-0.834049,0.043164,0.549999
-0.03334001,-0.04122329,0.02402374,-0.754322,0.055823,0.654127
-0.03162564,-0.04144911,0.02585255,-0.698068,-0.070818,0.712521
-0.03210125,-0.04051373,0.02540850,-0.695782,-0.104884,0.710554
-0.03201300,-0.03736492,0.02522797,-0.756703,-0.015329,0.653579
-0.02937965,-0.04625935,0.02586410,-0.451495,-0.753587,0.477764
-0.02758485,-0.04713022,0.02466241,-0.069362,-0.986355,0.149305
-0.01816327,-0.04738536,0.02827667,0.087360,-0.992728,-0.082822
-0.01627794,-0.04712747,0.02803258,0.144400,-0.946024,-0.290150
-0.01569773,-0.04691291,0.02763452,0.162369,-0.951402,-0.261669
-0.02363347,-0.04620369,0.03033983,-0.384451,-0.688052,0.615452
-0.02286494,-0.04586674,0.03116567,-0.330122,-0.635851,0.697648
-0.02726383,-0.04705168,0.02565151,-0.143556,-0.971862,0.186750
-0.02766403,-0.04657349,0.02685205,-0.471012,-0.813566,0.340968
-0.02670831,-0.04536889,0.02906506,-0.462253,-0.511958,0.724031
-0.03430166,-0.02829510,0.02147568,-0.776992,0.148786,0.611675
-0.03549231,-0.02770918,0.01980109,-0.797332,0.073268,0.599077
-0.03650761,-0.03028758,0.01876792,-0.861551,0.077301,0.501752
-0.03586106,-0.02528186,0.01878444,-0.836272,0.084342,0.541790
-0.03551466,-0.02512325,0.01931102,-0.856563,0.040001,0.514490
-0.03728278,-0.02668221,0.01676933,-0.830303,0.060616,0.554005
-0.01801254,-0.04726801,0.03151121,-0.147896,-0.930223,0.335875
-0.01542500,-0.04748026,0.03098074,0.020102,-0.997713,-0.064539
-0.01481027,-0.04683373,0.03375040,-0.205372,-0.826054,0.524841
-0.01701463,-0.04575822,0.02501009,0.301046,-0.772525,-0.559085
-0.01336086,-0.04462248,0.02522438,0.178691,-0.765162,-0.618544
-0.01009036,-0.04497950,0.02693331,0.165428,-0.751254,-0.638945
-0.00929933,-0.04520855,0.02743917,0.192732,-0.689209,-0.698460
-0.00633125,-0.04499256,0.02789413,0.114129,-0.745544,-0.656612
-0.00522711,-0.04343698,0.02601411,0.133738,-0.833288,-0.536420
-0.00360762,-0.04319480,0.02574921,-0.014645,-0.885371,-0.464654
-0.00766890,-0.04268359,0.02413112,0.045636,-0.858788,-0.510294
-0.01514249,-0.04158256,0.01565402,0.095767,-0.995333,-0.011836
-0.01499863,-0.04154754,0.01510364,0.101447,-0.973141,-0.206652
-0.01717474,-0.04133822,0.01141858,0.079414,-0.994348,-0.070466
-0.01699152,-0.04126595,0.01069350,0.111138,-0.975267,-0.191057
-0.01539902,-0.04073393,0.00564713,0.022971,-0.994321,-0.103917
-0.02684893,-0.04178128,0.00203024,0.206958,-0.976695,0.056883
-0.02562627,-0.04163508,0.00271855,0.169149,-0.982501,-0.077976
-0.03024722,-0.04271543,-0.00154368,0.464599,-0.884236,-0.047686
-0.02887740,-0.04216878,-0.00358307,0.385311,-0.917342,-0.100099
-0.02419086,-0.04142985,-0.00578251,0.063478,-0.994482,-0.083523
-0.02806861,-0.04191549,-0.00470534,0.185486,-0.981777,0.041350
-0.02861659,-0.04206084,-0.00816305,0.155010,-0.987767,0.016972
-0.03285407,-0.04425406,-0.00712064,0.566867,-0.819446,0.084671
-0.02935372,-0.04230071,-0.00717797,0.410845,-0.910773,0.041217
0.02600332,-0.04558021,-0.03936132,0.418030,-0.725356,-0.546909
0.02387105,-0.04558104,-0.04089057,0.337173,-0.766301,-0.546897
0.02568008,-0.04514066,-0.04018822,0.542996,-0.600510,-0.586977
0.02431190,-0.04653294,-0.03857037,0.048858,-0.923026,-0.381623
0.02602135,-0.04523763,-0.03979141,0.352654,-0.749188,-0.560672
0.02566607,-0.04603228,-0.03877286,0.295229,-0.876602,-0.380012
0.02359939,-0.04674475,-0.03743961,0.098906,-0.980515,-0.169728
-0.02695292,-0.04460091,-0.02455178,0.469705,-0.789298,0.395456
-0.02452378,-0.04470229,-0.02756814,0.449210,-0.783279,0.429749
-0.02484399,-0.04484746,-0.02753490,0.375262,-0.828109,0.416430
-0.02452473,-0.04537627,-0.02886156,0.505820,-0.728049,0.462701
-0.02479367,-0.04602312,-0.02987898,0.468276,-0.807098,0.359598
-0.02483927,-0.04711682,-0.03373712,0.017982,-0.997472,-0.068755
-0.02496134,-0.04715729,-0.03413091,0.054445,-0.994452,0.090001
-0.02871838,-0.04584406,-0.02469255,0.551383,-0.775133,0.308455
-0.02931695,-0.04555539,-0.02303267,0.485976,-0.830662,0.271712
-0.03120325,-0.04643106,-0.02240837,0.440633,-0.848797,0.292209
-0.03044170,-0.04597736,-0.02232229,0.423858,-0.878948,0.218622
-0.03421950,-0.04726799,-0.02551853,-0.087557,-0.992695,-0.083009
-0.03917920,-0.04709188,-0.01828813,-0.440159,-0.895402,-0.067189
-0.03837076,-0.04692072,-0.02142733,-0.334231,-0.927177,-0.169213
-0.03962753,-0.04709766,-0.01696977,-0.381764,-0.919766,-0.091026
-0.04197635,-0.04616532,-0.01380511,-0.701507,-0.704461,-0.107811
-0.03579225,-0.04646886,-0.00602040,0.425216,-0.894518,0.137946
-0.03351449,-0.04477704,-0.00295162,0.597167,-0.799549,0.064135
-0.03155405,-0.04380687,0.00160301,0.511442,-0.857947,-0.048511
-0.03076901,-0.04352413,0.00307024,0.472860,-0.864700,-0.169405
-0.03121004,-0.04366919,0.00242541,0.522323,-0.832406,-0.185146
-0.02081656,-0.03336541,-0.04296304,-0.476667,-0.109562,-0.872230
-0.02101906,-0.03349408,-0.04285851,-0.526238,0.098938,-0.844562
0.01029678,-0.04031352,0.00862561,-0.024098,-0.998496,-0.049244
0.00983600,-0.04030976,0.00885852,0.017668,-0.998750,0.046768
0.00890368,-0.04029896,0.00840578,0.022042,-0.998208,0.055631
0.00737451,-0.04061367,0.01250420,-0.063467,-0.997190,-0.039802
0.00805007,-0.04069249,0.01318184,-0.071183,-0.988395,-0.134198
0.00795784,-0.04074414,0.01378829,0.027249,-0.995121,-0.094825
0.00935991,-0.04096915,0.01589775,0.012886,-0.978182,-0.207351
0.01315048,-0.04108261,0.01571542,0.001140,-0.983447,-0.181191
0.01086763,-0.04118585,0.01712315,-0.011520,-0.998023,-0.061787
0.01578488,-0.04123725,0.01648045,-0.024002,-0.998704,-0.044874
0.01521173,-0.04133045,0.01738638,-0.023016,-0.994066,-0.106311
0.01637330,-0.04199441,0.01994557,-0.165311,-0.898431,-0.406810
0.02024228,-0.04432831,0.02203232,-0.396098,-0.761226,-0.513461
0.02391444,-0.04503185,0.02024165,-0.490240,-0.722896,-0.486916
0.02295147,-0.04475713,0.02064057,-0.321688,-0.782614,-0.532946
0.02140574,-0.04536738,0.02274898,-0.372357,-0.756096,-0.538210
0.02249238,-0.04673221,0.02488593,-0.138232,-0.972696,-0.186423
0.02929209,-0.04541606,0.01508899,-0.523648,-0.798920,-0.295838
0.02940878,-0.04641766,0.01746111,-0.283324,-0.926855,-0.246307
0.03118145,-0.04659185,0.01630379,-0.199387,-0.935587,-0.291412
0.03238223,-0.04670587,0.01544818,-0.093549,-0.962401,-0.255017
0.03005606,-0.04667382,0.01841929,-0.202817,-0.974270,-0.098298
0.03231233,-0.04686939,0.01924337,0.017458,-0.999201,-0.035942
0.03316538,-0.04679270,0.01574001,-0.045145,-0.998450,-0.032547
0.03443062,-0.04678230,0.01384619,-0.105220,-0.983260,-0.148759
0.02911309,-0.04360950,0.01158604,-0.520385,-0.815529,-0.253202
0.02901836,-0.04422767,0.01314951,-0.453962,-0.758789,-0.467073
-0.01867982,-0.03227294,-0.04394513,-0.405794,0.033045,-0.913367
-0.01722748,-0.03573456,-0.04479061,-0.418310,0.122535,-0.900001
-0.01444617,-0.02944444,-0.04532982,-0.320229,0.099656,-0.942084
-0.01443405,-0.02936969,-0.04532302,-0.318084,0.173627,-0.932028
-0.01477760,-0.02907514,-0.04516521,-0.255294,0.112744,-0.960268
-0.01435372,-0.02858322,-0.04525283,-0.279262,0.070134,-0.957650
-0.01646958,-0.03002767,-0.04461962,-0.335874,-0.019012,-0.941715
-0.01828674,-0.03036554,-0.04395481,-0.330556,0.021530,-0.943541
-0.01869645,-0.03103526,-0.04384901,-0.405753,0.152335,-0.901198
-0.01177021,-0.04745935,0.03176529,0.061658,-0.998031,-0.011496
-0.01372504,-0.04643057,0.02757938,0.233801,-0.835877,-0.496636
-0.00986815,-0.04731032,0.03116740,0.018445,-0.994943,-0.098735
-0.01076433,-0.04697344,0.02970377,0.062425,-0.956761,-0.284098
-0.01194786,-0.04581391,0.02732860,0.271654,-0.748239,-0.605263
-0.00198510,-0.04490367,0.02823102,0.076749,-0.745764,-0.661775
-0.00469670,-0.04220485,0.02350699,-0.009098,-0.911128,-0.412022
-0.00740547,-0.04166633,0.02068198,0.015429,-0.974395,-0.224313
-0.00853303,-0.04090806,0.01339971,0.027842,-0.999225,-0.027842
-0.00675158,-0.04094276,0.01433016,0.044465,-0.996672,-0.068325
-0.00616503,-0.04114965,0.01660961,-0.005113,-0.999108,-0.041928
-0.00643141,-0.04094375,0.01459709,0.063391,-0.990050,-0.125629
-0.00525196,-0.04068312,0.01231558,0.062133,-0.992991,-0.100542
-0.00642806,-0.04065404,0.01138677,0.126693,-0.980336,-0.151294
-0.00491888,-0.04067912,0.01233576,0.099118,-0.992316,-0.074053
-0.01062217,-0.04075406,0.01016010,0.136144,-0.984332,-0.112048
-0.00658206,-0.04052559,0.00963964,0.017947,-0.997624,-0.066508
-0.00417823,-0.04054182,0.01093210,0.000999,-0.999736,-0.022971
-0.00259533,-0.04048789,0.00978882,0.023295,-0.999642,-0.013167
-0.00872113,-0.04056214,0.00864950,0.076180,-0.992618,-0.094373
-0.00238956,-0.04029259,0.00576799,-0.039722,-0.997335,0.061193
0.00263022,-0.04025110,0.00600390,-0.001022,-0.998844,-0.048051
0.00242736,-0.04032438,0.00769319,0.077623,-0.995975,0.044824
-0.01045954,-0.04741829,0.03342997,-0.040712,-0.985228,0.166337
-0.00973607,-0.04743570,0.03229800,0.094945,-0.991779,-0.085794
-0.01001377,-0.04700100,0.02998852,0.094190,-0.918690,-0.383584
-0.00899795,-0.04673655,0.02965732,0.177180,-0.850167,-0.495806
-0.02830153,-0.04345404,0.02860125,-0.631351,-0.202218,0.748668
-0.02925957,-0.04413747,0.02765856,-0.614870,-0.181562,0.767444
0.00399684,-0.04673788,-0.04190309,-0.036736,-0.980010,0.195528
0.00514049,-0.04579489,-0.03990005,-0.020861,-0.783000,0.621671
0.00242943,-0.04669805,-0.04164261,0.074880,-0.975894,0.204999
0.00035045,-0.04691011,-0.04458528,-0.016780,-0.990033,-0.139835
0.00038912,-0.04666140,-0.04617464,-0.245715,-0.939826,-0.237386
0.00276784,-0.04526927,-0.04792707,-0.003957,-0.455107,-0.890428
0.00277968,-0.04466757,-0.04823196,0.215436,-0.326721,-0.920240
0.00137799,-0.04396331,-0.04853157,0.052991,-0.237843,-0.969857
0.00183552,-0.04617868,-0.04720263,-0.182626,-0.698278,-0.692139
-0.00008599,-0.04651579,-0.04644218,-0.041940,-0.949363,-0.311371
-0.00172228,-0.04638658,-0.04659198,-0.126352,-0.774465,-0.619870
-0.00108157,-0.04678978,-0.04534181,-0.112964,-0.982668,-0.146975
-0.02052020,-0.04338838,-0.02887394,0.405510,-0.809416,0.424743
-0.02514801,-0.04714303,-0.03607513,0.051966,-0.997959,-0.037119
-0.02772039,-0.04711134,-0.03404041,-0.172722,-0.984858,-0.014870
-0.02639726,-0.04556559,-0.03913676,-0.503424,-0.687400,-0.523494
-0.02346591,-0.04717897,-0.03548047,0.096243,-0.994516,-0.040931
-0.02412667,-0.04700869,-0.03821210,-0.352557,-0.933551,-0.064702
-0.02244441,-0.04696949,-0.03941706,-0.194061,-0.909931,-0.366560
-0.02228264,-0.04701233,-0.03904030,-0.023574,-0.999339,0.027674
-0.01922989,-0.04705195,-0.03784648,0.052933,-0.997077,0.055093
-0.00094971,-0.04691237,-0.04363710,-0.030935,-0.997401,0.065071
-0.00175861,-0.04686552,-0.04288210,0.014981,-0.982957,0.183224
-0.00071314,-0.04502373,-0.03882249,-0.035039,-0.791877,0.609675
-0.00172022,-0.04600209,-0.04032889,-0.086680,-0.854015,0.512977
-0.01788569,-0.04210797,-0.02763028,0.138764,-0.955491,0.260348
-0.01695724,-0.04222816,-0.02883993,0.264007,-0.949071,0.171943
-0.01835200,-0.04315468,-0.03022657,0.329296,-0.827180,0.455343
-0.01273207,-0.04237461,-0.03183960,0.158253,-0.902472,0.400624
-0.02228865,-0.04561188,-0.03137935,0.364563,-0.816685,0.447346
-0.02078985,-0.04545665,-0.03225901,0.337654,-0.813222,0.473983
-0.01516289,-0.04386166,-0.03358971,0.335059,-0.780734,0.527437
-0.01108283,-0.04385195,-0.03543472,0.208222,-0.831369,0.515236
-0.00981860,-0.04366580,-0.03556522,0.149992,-0.866457,0.476187
-0.00916312,-0.04487410,-0.03748977,0.132020,-0.799535,0.585930
-0.01131584,-0.04567178,-0.03795582,0.103877,-0.866594,0.488082
-0.01815568,-0.04600753,-0.03511393,0.328611,-0.869674,0.368350
-0.02184445,-0.04658648,-0.03381932,0.244190,-0.914630,0.322216
-0.01389530,-0.04428257,-0.03487953,0.206964,-0.844473,0.493994
-0.01468086,-0.04508254,-0.03565074,0.227526,-0.790924,0.568041
-0.01267868,-0.04471708,-0.03600772,0.278908,-0.789452,0.546786
0.01886123,-0.04571622,0.02477324,-0.229621,-0.815230,-0.531672
0.01976970,-0.04535998,0.02380179,-0.372045,-0.787576,-0.491229
0.02094310,-0.04609021,0.02418047,-0.266192,-0.862460,-0.430470
0.02180844,-0.04660656,0.02485996,-0.173213,-0.945168,-0.276867
0.02048161,-0.04690903,0.02722149,-0.045457,-0.994511,-0.094240
0.02638678,-0.04684491,0.02343944,-0.009351,-0.998439,-0.055065
0.02618719,-0.04644916,0.02109414,-0.347657,-0.886450,-0.305517
0.03000255,-0.04681947,0.02036352,-0.141365,-0.989554,-0.028273
0.03238305,-0.04690845,0.01986792,-0.015556,-0.998690,0.048742
0.03136062,-0.04692752,0.02109607,-0.045795,-0.997901,-0.045795
0.01619925,-0.04228155,0.02076771,-0.117452,-0.938269,-0.325356
0.01521788,-0.04147810,0.01839262,-0.063876,-0.988342,-0.138205
0.01802741,-0.04518396,0.02451373,-0.267848,-0.834510,-0.481508
0.01071381,-0.04022586,0.00739348,-0.005163,-0.998488,-0.054726
0.00791439,-0.04042113,0.01009396,-0.035560,-0.987654,-0.152564
0.00694660,-0.04041427,0.01021443,-0.045513,-0.998111,-0.041279
0.00298554,-0.04034019,0.00866430,-0.021104,-0.991868,-0.125511
-0.00127934,-0.04060769,0.01182957,0.016209,-0.995233,-0.096173
-0.00056724,-0.04072612,0.01314403,-0.016780,-0.990033,-0.139835
-0.00095728,-0.04095976,0.01559833,0.055820,-0.982203,-0.179338
0.00207632,-0.04049797,0.01142790,-0.043221,-0.998304,-0.039004
0.00148404,-0.04086402,0.01507114,0.085090,-0.983927,-0.156997
0.00776616,-0.04146209,0.01998038,-0.020139,-0.997420,-0.068897
0.00336534,-0.04135314,0.01922362,0.014264,-0.992982,-0.117402
0.00483988,-0.04118049,0.01791039,0.019436,-0.999430,-0.027620
0.00525191,-0.04101691,0.01650727,0.001081,-0.993536,-0.113516
0.00477060,-0.04083141,0.01494301,-0.005888,-0.973816,-0.227263
0.00043321,-0.04109100,0.01694948,-0.025955,-0.989661,-0.141058
-0.00420688,-0.04121605,0.01736310,0.005296,-0.996655,-0.081554
-0.00426909,-0.04123574,0.01757067,0.007633,-0.993394,-0.114497
0.00231001,-0.04094286,0.01586289,-0.042464,-0.996269,-0.075129
-0.00047372,-0.04129449,0.01840558,0.013994,-0.995707,-0.091497
0.00595199,-0.04221012,0.02392312,-0.137805,-0.948578,-0.284975
0.00586600,-0.04231349,0.02429174,-0.056302,-0.936182,-0.346977
0.00103792,-0.04131611,0.01890403,0.101390,-0.989425,-0.103721
-0.00073049,-0.04138659,0.01914863,0.020222,-0.997249,-0.071308
-0.00149362,-0.04180263,0.02204763,-0.031224,-0.955448,-0.293504
0.00291604,-0.04212038,0.02374418,-0.015584,-0.969813,-0.243352
0.00264699,-0.04326480,0.02628213,0.124271,-0.828959,-0.545329
0.00006953,-0.04533968,0.02893981,0.067488,-0.782578,-0.618883
0.00067234,-0.04590480,0.02973424,0.085828,-0.769543,-0.632800
0.00257935,-0.04499383,0.02860896,0.009633,-0.796814,-0.604148
0.00611313,-0.04501180,0.02830584,-0.073183,-0.793529,-0.604115
0.00954549,-0.04648945,0.02975449,-0.090177,-0.897612,-0.431464
-0.00288080,-0.04243704,-0.04855528,-0.085460,-0.087739,-0.992471
-0.00287793,-0.04218993,-0.04857681,-0.099575,-0.027356,-0.994654
-0.04435148,0.04915769,0.00204106,-0.954454,0.278873,0.106050
-0.04425032,0.04754312,0.00388795,-0.963187,0.020806,0.268028
-0.04362065,0.04565820,0.00561652,-0.971910,-0.182153,0.149035
-0.04427518,0.04573685,0.00258553,-0.982754,-0.158353,0.095495
-0.04456451,0.04808824,0.00231065,-0.985517,0.139426,0.096526
-0.04469211,0.04916672,0.00000653,-0.916721,0.373686,0.141357
-0.04405601,0.05025736,-0.00229712,-0.597499,0.801726,0.015179
-0.04377639,0.05044808,-0.00382385,-0.401745,0.914271,-0.052053
-0.04525110,0.04745193,-0.00369918,-0.986114,-0.157545,0.052515
-0.04523376,0.04813377,-0.00531502,-0.994870,0.100459,-0.011882
-0.04436941,0.04982241,-0.01031173,-0.802216,0.596449,0.026416
-0.04352560,0.05042790,-0.01077111,-0.404800,0.906249,-0.121860
-0.04280152,0.05061912,-0.01216524,-0.221620,0.967184,-0.124261
-0.04464202,0.04906613,-0.01124891,-0.948983,0.256592,-0.183280
-0.04478478,0.04522910,-0.00998616,-0.975719,-0.095464,-0.197127
-0.04454622,0.04416151,-0.01082116,-0.976608,-0.166311,-0.136300
-0.04472787,0.04294837,-0.00721414,-0.989028,-0.145811,0.023737
-0.04483072,0.04328892,-0.00570020,-0.995390,-0.076060,0.058423
-0.04512456,0.04623635,-0.00608445,-0.981469,-0.191195,0.012746
-0.04475773,0.04566424,-0.00029989,-0.981678,-0.185467,0.043709
-0.04472747,0.04330533,-0.00281662,-0.999371,-0.029664,0.019435
-0.04440363,0.04375077,0.00055953,-0.987858,-0.037950,0.150651
-0.04441540,0.04262489,-0.00026400,-0.996292,-0.029144,0.080955
-0.04456203,0.04093248,-0.00508639,-0.998444,-0.032615,0.045240
-0.04395803,0.04006706,-0.01185812,-0.983508,-0.067787,-0.167684
-0.04388528,0.04057624,-0.01268723,-0.962146,-0.177688,-0.206644
-0.04370455,0.03671491,-0.01130282,-0.988199,-0.125430,-0.087918
-0.04337504,0.03488779,-0.01183273,-0.963274,-0.125757,-0.237253
-0.04294778,0.03193646,-0.01251713,-0.982440,-0.098123,-0.158693
-0.04257451,0.03335744,-0.01496083,-0.975279,-0.141836,-0.169450
-0.04263023,0.03470244,-0.01530247,-0.969211,-0.097300,-0.226191
-0.04211557,0.03201396,-0.01619509,-0.947599,-0.163566,-0.274412
-0.04211848,0.03220703,-0.01631091,-0.932814,-0.202786,-0.297885
-0.04365218,0.04137560,-0.01433928,-0.985543,-0.099152,-0.137379
-0.03131748,-0.03682948,0.02591193,-0.755887,0.098339,0.647274
-0.03226029,-0.03431055,0.02466904,-0.765729,0.117007,0.632430
-0.03259465,-0.02932355,0.02366983,-0.756524,0.079863,0.649071
-0.03586651,-0.00725659,0.01655882,-0.796020,-0.147854,0.586934
-0.03533034,-0.00608827,0.01736194,-0.844333,0.117309,0.522820
-0.03643456,-0.00438908,0.01551969,-0.843355,-0.063357,0.533609
-0.03670148,-0.00334035,0.01492398,-0.944131,0.063635,0.323368
-0.03685794,0.00035163,0.01477532,-0.880912,0.031123,0.472255
-0.03820448,-0.00086038,0.01214547,-0.880361,0.118045,0.459380
-0.03867304,-0.00059811,0.01099062,-0.903596,0.060962,0.424026
-0.03836150,-0.00470847,0.01168966,-0.953544,0.046854,0.297587
-0.03898192,-0.00602713,0.01012500,-0.931496,-0.089799,0.352494
-0.03875351,0.00181056,0.01083088,-0.908474,-0.052335,0.414651
-0.03948321,0.00161049,0.00896598,-0.925434,-0.093492,0.367193
-0.03890231,0.00234485,0.01042412,-0.977614,-0.001162,0.210402
-0.03866206,0.00388856,0.01110458,-0.873281,-0.053804,0.484237
-0.03898222,0.00485031,0.01042966,-0.932417,-0.112650,0.343379
-0.03788683,0.00350985,0.01281685,-0.662640,-0.117111,0.739725
-0.03696065,0.00217106,0.01506413,-0.820706,-0.096979,0.563060
